# .PCD v0.7 - Point Cloud Data file format
VERSION 0.7
FIELDS x y z
SIZE 4 4 4
TYPE F F F
COUNT 1 1 1
WIDTH 1593
HEIGHT 1
VIEWPOINT 0 0 0 1 0 0 0
POINTS 1593
DATA ascii
44.71138 -7.325623 204.07866
38.82753 19.782795 208.14923
172.89395 92.078186 116.49297
108.87488 34.67767 160.22418
196.14677 58.420296 100.52264
204.86894 69.082817 94.569061
55.348782 68.329285 196.91708
111.47014 25.000977 158.47672
37.433491 96.166115 209.22455
89.534149 -50.735512 173.32787
39.26709 80.6119 207.94476
65.490105 124.64973 190.06444
147.40562 -40.393246 133.73021
83.939148 100.31056 177.39717
49.01281 -24.719721 201.10669
170.11215 117.76117 118.43787
22.752117 88.674721 219.26233
110.90666 25.002281 157.65355
164.55482 55.544304 122.14334
116.03346 -52.581673 155.18568
128.63634 -51.884655 146.55991
26.456997 96.95105 216.7394
192.32259 19.418587 103.07855
212.25987 -75.74659 89.280281
154.72119 4.1218281 128.79312
60.918659 39.625881 193.05891
117.65984 74.301048 154.27353
110.9872 25.002094 157.77119
77.012909 84.360733 182.11302
44.27182 18.263166 204.4201
136.10889 8.4734917 141.54048
146.58929 -37.649124 134.29335
131.46208 31.971222 144.75854
129.78548 16.084194 145.88103
84.447784 75.192726 177.00919
176.64906 108.26663 113.94818
114.73361 -41.963112 156.09229
111.03023 25.001995 157.83406
176.23462 -29.981907 114.01275
149.3083 -4.3617191 132.48489
76.523109 68.561623 182.42325
76.46032 65.440727 182.46129
194.79042 115.21171 101.54111
134.29413 30.426476 142.8175
158.05559 35.450043 126.56033
114.44476 62.470547 156.45555
90.218613 111.09866 173.11586
110.99464 25.002077 157.78207
42.306347 57.070213 205.82703
29.08181 -22.967752 214.75258
213.77321 9.8110161 88.37999
179.60669 1.1704829 111.75388
89.075745 119.99038 173.91226
51.254574 108.00917 199.78255
29.716036 0.45462468 214.35558
50.852692 3.5064411 199.892
93.282982 -2.6285889 170.83798
111.2096 25.001579 158.09612
193.25195 48.379444 102.48829
72.290756 -34.735455 185.15663
107.76969 11.952312 160.94467
150.79025 81.384277 131.60638
190.34456 -18.704 104.37212
205.97414 34.577198 93.757843
154.95982 73.547508 128.73982
154.64584 -9.8311272 128.82259
67.179283 -49.391708 188.63231
111.52509 25.000849 158.55701
105.82306 48.580387 162.33524
176.12158 48.737373 114.2149
148.6992 39.230274 132.97093
147.29887 20.096767 133.89915
202.58951 76.950974 96.141853
154.97238 -53.171944 128.53036
47.895065 -51.909771 201.8287
62.155712 1.6665601 192.15196
189.68521 108.81922 105.02558
111.53033 25.000837 158.56467
45.295368 -51.815578 203.60838
167.48734 47.318218 120.12294
121.68497 39.368423 151.46288
193.59732 20.4233 102.20757
77.402237 47.61335 181.78827
189.44032 2.1312399 105.02411
131.73839 -41.058868 144.45366
14.168099 37.315041 225.05684
151.39937 66.489403 131.16583
111.87075 25.00005 159.06197
208.04007 -36.901867 92.230377
91.141693 -49.912903 172.22878
83.342606 29.773413 177.6937
133.7478 104.29173 143.30856
65.923386 16.818892 189.59694
55.198074 -14.722824 196.88861
109.68493 18.815758 159.64455
11.49933 -33.705624 226.77109
172.01482 121.48489 117.14136
111.07077 25.001902 157.8933
44.617188 27.412336 204.1982
93.490204 32.831509 170.75233
110.82779 57.082771 158.9229
101.2579 49.164375 165.46111
187.65695 -50.515732 106.16141
200.47333 -12.989694 97.447853
150.29417 108.06569 131.98825
19.637506 -12.399425 221.23413
128.57982 26.106209 146.72221
111.54967 25.000792 158.59291
153.72905 -36.619293 129.40768
181.76054 -24.116892 110.23945
71.694206 77.936852 185.74358
141.55945 77.107964 137.91826
33.973507 4.4671979 211.44762
116.82467 9.3902931 154.74232
208.33521 108.29175 92.258492
212.56757 73.107948 89.305603
213.77321 74.878754 88.483124
111.58688 25.000706 158.64726
198.37599 -29.215813 98.857796
18.551161 -63.451416 221.89684
208.5173 96.944771 92.11586
115.99578 112.14734 155.4726
204.1468 -34.164024 94.899727
170.71498 -14.810737 117.81509
116.95654 26.062252 154.67848
60.767952 56.618092 193.18901
199.25511 119.60733 98.49192
110.89477 25.002308 157.63617
203.04163 -52.700985 95.626862
95.487076 60.976036 169.43005
11.857259 30.96023 226.62857
88.039635 -55.300678 174.34366
29.489975 126.51473 214.71013
39.61874 -0.65055984 207.57524
116.83723 -4.9080319 154.71106
63.298576 -52.663307 191.28352
201.76689 -4.1168203 96.576447
110.98279 25.002106 157.76476
19.078634 -76.493851 221.51509
50.940601 1.1516445 199.82808
29.176003 121.17091 214.91658
115.22341 -13.812303 155.80164
87.367737 117.63558 175.0777
214.28185 87.958862 88.155685
90.268845 19.054379 172.93558
127.41811 -44.889339 147.40489
119.83881 -76.374535 152.54315
111.67179 25.000509 158.77132
64.523071 18.426432 190.55803
20.610823 85.321495 220.72278
99.82618 -13.674155 166.34154
132.15283 23.644661 144.27252
156.065 -14.207909 127.84421
78.155769 34.53952 181.25174
89.96743 98.269737 173.26746
144.86244 33.842499 135.58873
196.71822 30.288328 100.08689
111.2014 25.001598 158.08412
202.16878 68.078102 96.415787
25.590433 24.617977 217.21793
97.019264 -27.061958 168.2417
12.811736 -8.1796293 225.91318
13.80389 100.66849 225.40657
143.64424 81.547539 136.49821
44.127392 45.566246 204.56224
73.157326 -55.388592 184.53072
140.51706 45.773468 138.58212
111.3082 25.00135 158.24016
139.0414 23.211378 139.55649
87.009804 21.402895 175.17017
193.37126 106.25092 102.49834
104.93138 60.724857 162.96486
200.07144 -59.206501 97.649696
145.59087 71.713905 135.15013
178.53918 -25.278593 112.44269
124.92517 -77.134354 149.06024
131.11671 39.971252 145.00763
111.4882 25.000935 158.50311
124.42909 64.87558 149.62491
65.89827 -4.5501032 189.58026
180.7056 -52.299099 110.91691
208.18449 -52.481201 92.106827
139.81377 31.701206 139.04124
204.46078 51.80175 94.821068
120.30977 -38.710354 152.28047
195.22998 93.46595 101.20576
43.813419 -20.255026 204.67284
111.25746 25.001469 158.16602
128.66145 3.7199426 146.63084
87.424248 1.2772336 174.85458
66.689484 -73.203415 188.92984
128.12141 92.913361 147.14189
14.230893 118.1191 225.14194
23.361225 -38.710354 218.64348
96.259445 0.74347973 168.80588
155.32402 -66.327408 128.26881
156.57364 -67.162575 127.4121
111.57026 25.000744 158.62299
200.68054 -0.34914586 97.326042
26.375364 53.421848 216.72627
18.023685 90.79718 222.5024
101.38976 -2.9048851 165.2883
153.86092 9.7858982 129.39098
124.11512 -41.542389 149.67114
17.559006 19.902105 222.7081
23.788227 -52.61935 218.32913
83.97683 -38.974091 177.15059
111.57636 25.000731 158.6319
72.340996 115.07356 185.35971
116.4793 105.77997 155.13152
67.763268 14.909936 188.33447
188.36653 23.280453 105.79266
133.13242 124.43623 143.76173
76.623581 10.639905 182.26266
101.0444 67.833206 165.63684
147.60657 120.27296 133.84732
166.39471 -47.036911 120.72131
111.17934 25.00165 158.0519
191.79512 83.104843 103.54056
61.94849 -16.73225 192.26463
110.50126 -13.749508 159.03413
28.014303 -45.385414 215.44778
196.05258 83.305786 100.62656
87.574959 43.946148 174.81905
101.77281 -1.8624952 165.02776
164.67413 79.814407 122.10014
202.63345 -50.151524 95.910301
110.96486 25.002146 157.73857
77.546661 37.723206 181.67374
134.01155 43.807999 143.03215
182.70245 -25.54233 109.59244
151.17331 -6.9614148 131.20415
32.67366 -31.281754 212.28072
68.573318 3.7764578 187.76233
57.753815 37.070141 195.22125
132.39772 -6.9362969 144.05641
83.330048 19.041819 177.68529
111.51678 25.000868 158.54486
174.60825 113.05157 115.35275
64.058388 31.223967 190.89639
47.939022 20.674479 201.91367
112.67395 -47.526711 157.49335
86.551407 75.38739 175.56952
86.733513 -70.421616 175.21375
133.06963 -53.542431 143.52261
197.68524 127.24315 99.578621
74.074127 -36.192291 183.93358
110.92497 25.002239 157.6803
19.851007 -16.05407 221.0822
127.75721 23.43116 147.28107
135.21092 92.115868 142.28773
101.51535 -14.214189 165.18442
113.79797 -47.853241 156.72342
75.034882 54.439121 183.41959
80.403816 -63.080925 179.55818
83.179337 59.450127 177.85251
20.912237 117.38441 220.56728
111.31548 25.001335 158.25078
109.44003 -64.85173 159.67957
171.36176 72.850494 117.51131
139.16071 116.86949 139.62328
186.82178 -13.674155 106.7915
120.93143 -63.677475 151.81535
113.12607 49.233452 157.33723
40.629734 127.26199 207.08595
98.915657 70.558487 167.09831
15.254445 -42.208012 224.18716
111.58115 25.000719 158.6389
171.20477 -46.446644 117.42966
159.01634 -25.818626 125.80556
143.55005 91.312096 136.57817
184.59258 63.393627 108.43958
74.532524 82.282234 183.80759
132.10258 -31.890862 144.21889
123.99581 -76.713631 149.69707
125.30194 106.04998 149.0927
66.884148 -17.052504 188.88559
111.61774 25.000635 158.69234
112.64883 84.040482 157.71909
25.38949 -45.096561 217.24496
93.132278 43.738926 171.01463
128.17165 27.650955 147.00406
14.796044 124.66229 224.76546
167.98969 10.878524 119.72131
197.9427 117.54139 99.387009
61.02541 -75.357269 192.80359
144.85617 50.351192 135.61919
111.47694 25.000961 158.48665
174.90338 -4.9959445 114.96361
202.35088 11.198776 96.200974
195.90189 125.38443 100.79642
139.72585 -14.42769 139.02831
37.615593 23.374645 208.98451
56.441406 -55.834435 195.97235
63.461842 70.910141 191.36765
48.592087 91.098595 201.57826
138.67719 -40.154629 139.70535
110.99423 25.002079 157.78148
39.235695 -51.715107 207.7565
162.90961 43.512867 123.25045
71.00975 104.59315 186.25435
48.705116 108.44246 201.52838
201.6727 53.233467 96.731827
168.34763 -22.967752 119.42265
158.07443 -59.790489 126.39647
149.41505 55.318245 132.50642
135.65048 -20.173393 141.80885
111.31255 25.001341 158.24651
206.20647 -13.956731 93.521881
69.854332 -16.788765 186.85286
151.92683 121.69211 130.89227
58.325245 -52.387009 194.68831
207.68214 69.434464 92.643936
190.41364 104.84433 104.52067
135.16696 112.21641 142.34969
192.88774 62.200531 102.7595
119.97696 98.878845 152.72636
111.93719 24.999895 159.15903
187.96465 110.35769 106.20578
148.92526 8.4734917 132.76744
91.775917 6.5959344 171.88422
81.515282 46.702831 178.97137
48.347187 -49.153091 201.52359
106.3631 31.575617 161.93861
195.58163 9.3588953 100.83173
128.15282 41.779736 147.03934
199.06673 -62.792072 98.331757
110.95155 25.002176 157.71913
81.716225 70.288475 178.8712
74.513687 -1.0147684 183.68845
78.651848 23.763971 180.89508
23.166561 -51.821861 218.75595
92.083611 -13.912774 171.64108
136.79962 -8.2863798 141.04109
118.76502 29.384085 153.44582
114.73361 -53.002396 156.0748
153.56578 78.709221 129.70226
111.26994 25.00144 158.18425
172.20949 -15.394726 116.79115
70.859039 4.9004807 186.19949
71.323723 -74.233246 185.75598
17.326666 66.753136 222.94141
79.512131 38.922581 180.33023
194.26294 -69.354103 101.60963
56.460247 -32.945808 195.99574
199.92702 -26.773104 97.799965
20.497791 17.007275 220.69186
111.02415 25.002008 157.8252
192.59261 -50.189201 102.78339
168.20947 32.234959 119.60472
91.060059 -17.391594 172.33621
189.57219 49.729527 105.00929
117.32703 -68.399628 154.27515
84.372437 18.363638 176.97067
90.45723 -48.883072 172.69894
40.749043 -7.6835523 206.79039
152.66153 37.767162 130.25633
111.31186 25.001343 158.2455
136.18423 -25.693037 141.43475
107.8576 99.670052 161.02354
143.71959 37.603897 136.377
52.893513 122.18819 198.68314
127.49347 30.746727 147.47319
150.42604 73.327728 131.84293
176.67418 126.01866 113.95913
107.57503 56.963463 161.14928
143.27374 -32.305305 136.57137
110.95737 25.002163 157.72763
157.33974 35.607029 127.05059
19.562153 5.4844704 221.31406
176.95676 35.738895 113.6226
172.14041 -49.127972 116.78496
43.304783 33.886456 205.10683
127.84512 98.671623 147.34015
164.8374 55.023109 121.94908
73.107086 31.544218 184.70291
30.218393 30.15646 214.05878
111.02671 25.002003 157.82892
93.816742 -18.113731 170.44806
192.6868 69.654243 102.90887
182.28174 62.55846 110.02007
9.2387247 34.765579 228.42705
184.71188 -31.526653 108.20746
86.067886 -34.025875 175.72707
34.997059 70.087532 210.851
132.99428 19.37463 143.68976
70.676941 126.4959 186.51689
111.50803 25.000889 158.53207
172.8437 -37.498417 116.32198
86.187195 -67.652374 175.5921
187.14204 119.81455 106.78386
86.187195 31.186291 175.74876
194.11852 63.318275 101.91879
206.87837 76.354431 93.205101
112.07112 27.336983 158.02466
86.1558 28.586594 175.76614
40.397392 77.497292 207.16611
111.04716 25.001955 157.8588
14.595102 -71.300735 224.59239
30.212112 -37.171886 213.95636
176.19695 -19.187519 114.05564
89.709976 35.858208 173.34477
209.23944 14.621081 91.491058
213.55344 -3.1811812 88.509834
213.45296 -49.504738 88.505188
84.956421 96.875694 176.69537
195.36813 60.70602 101.05926
111.1169 25.001795 157.96068
204.64288 -59.495358 94.520004
176.89397 85.823853 113.74497
37.182312 20.693316 209.27686
60.347229 -6.9676943 193.37621
207.71355 22.746698 92.548439
206.38229 -13.887656 93.401634
181.18283 3.4624848 110.67862
48.435101 -30.39007 201.49315
176.55487 22.621109 113.87691
111.86913 25.000051 159.0596
196.07143 115.55708 100.66479
165.96771 113.22112 121.26762
194.68367 113.2588 101.61108
99.367783 -11.087018 166.65941
87.122833 62.847317 175.15849
23.160282 1.6540011 218.845
98.921936 24.084223 167.02036
121.05074 54.589828 151.92114
83.888916 -3.2439759 177.26741
111.14613 25.001726 158.00339
50.815014 109.0704 200.08511
76.372406 -24.556456 182.37881
16.516617 -66.151581 223.28523
59.05994 26.621124 194.31062
21.590418 2.6335964 219.92116
184.63025 -11.206328 108.29555
52.774204 27.751427 198.61511
137.85457 124.15993 140.5289
36.548084 45.421822 209.75018
111.76188 25.000301 158.90291
98.564011 56.008987 167.31596
132.25958 -75.577049 144.04218
90.589096 61.63538 172.78386
35.637566 34.338577 210.35588
117.8545 74.696648 154.1409
123.78859 3.9522827 149.96678
127.70697 72.417206 147.3931
81.358292 -24.330395 178.96625
149.19528 -63.602123 132.46837
111.79446 25.000225 158.95052
156.98808 61.968189 127.33309
204.52986 107.60101 94.862228
136.44798 56.636932 141.3847
172.65533 64.348106 116.61235
90.074181 33.302467 173.09142
127.58138 88.611931 147.50473
72.403786 -69.065247 185.02486
47.587372 -65.768532 202.01735
212.79362 57.252319 89.125725
111.44897 25.001026 158.4458
63.00972 -42.088699 191.49802
24.648514 -25.397902 217.7834
48.880939 -70.01973 201.12515
168.66788 19.801634 119.27122
211.68843 -59.489079 89.697212
13.483638 28.64311 225.51161
128.20305 116.29806 147.12308
35.254517 15.531602 210.58829
56.322098 117.81141 196.32927
111.77022 25.000282 158.9151
195.95839 43.826839 100.62846
19.511917 -24.198526 221.30139
17.690874 8.3918591 222.59959
169.96144 70.841064 118.46666
172.39159 12.812597 116.7112
177.4026 28.599154 113.30609
26.53863 1.7921492 216.53268
211.06049 51.632202 90.303185
31.091236 76.191162 213.53427
111.8904 25.000004 159.09068
37.232548 -2.3271749 209.20598
64.497948 61.528629 190.64354
203.77003 51.531731 95.293465
159.0603 49.848839 125.89541
210.87839 13.157968 90.366852
10.726956 -34.10751 227.29915
40.617172 -1.6803908 206.89017
12.102158 12.800038 226.43216
187.65695 46.263268 106.31481
111.48238 25.000948 158.4946
167.41199 -6.1639237 120.08974
30.438173 -59.602108 213.76607
156.52341 37.170612 127.61186
204.80615 -35.746449 94.445885
31.154032 -71.131195 213.25777
10.833707 -5.9441423 227.27072
105.02557 -7.3632998 162.79247
135.71956 92.32309 141.9399
94.262581 31.64469 170.22176
111.52882 25.000841 158.56244
176.19695 23.362085 114.12309
64.472832 -62.817188 190.46364
12.704986 -14.867251 225.97565
13.477359 81.214729 225.59924
96.535744 10.784332 168.63266
8.9247522 46.866096 228.66115
41.778873 113.59161 206.27768
49.245148 32.661961 201.0386
8.8619576 116.20387 228.81403
111.71337 25.000414 158.83205
192.85007 41.220863 102.75204
53.081898 33.742027 198.41399
100.59855 83.814423 165.96736
9.2826805 122.62775 228.53622
156.41666 10.363608 127.64245
55.763226 -25.316269 196.48495
158.35701 57.44698 126.38887
76.108665 114.07513 182.77908
169.69771 -36.606735 118.47688
111.26591 25.00145 158.17836
168.57996 24.492388 119.33884
201.57224 112.93855 96.895233
48.566967 63.098492 201.55107
182.37593 14.470374 109.87937
204.88779 -18.729118 94.416977
179.97717 82.514572 111.62922
14.752089 125.91819 224.79753
117.05701 25.057539 154.60811
177.05095 63.48782 113.60211
111.44835 25.001026 158.44489
138.80276 30.539505 139.73145
99.430573 -76.079407 166.51341
125.96128 -76.832939 148.35149
31.75058 75.016907 213.08107
200.22215 88.957298 97.78138
68.253067 55.443836 188.06345
58.683174 82.753197 194.6575
153.16389 -11.978702 129.8336
186.53922 106.04998 107.17468
111.1632 25.001688 158.02832
14.883957 -68.255203 224.39949
154.21255 -8.5877943 129.12115
192.61772 34.344856 102.90018
38.871487 44.94458 208.15903
54.670601 63.965057 197.37439
199.61304 82.68412 98.188385
130.98485 -14.584676 145.01143
90.633057 95.192802 172.80695
143.33655 9.6854277 136.59494
111.93019 24.99991 159.1488
204.92546 -34.710339 94.36586
36.303188 57.038818 209.93623
130.68344 48.523872 145.31778
120.28465 87.286964 152.49738
76.353569 -77.385529 182.30797
51.706696 15.117158 199.32582
9.6971254 1.4907352 228.06052
209.3148 118.66541 91.604385
100.35365 -46.452923 165.92851
111.34789 25.001259 158.29813
177.59099 -4.8640757 113.1241
214.25046 -69.102928 87.928215
79.417946 37.032463 180.39171
178.07449 -75.991493 112.68039
192.74959 -25.969332 102.71432
134.4825 -13.824862 142.61842
42.105404 5.3274837 205.88255
184.08394 87.330917 108.8257
34.086536 122.48332 211.55731
111.44022 25.001045 158.433
128.98798 -73.825081 146.28442
29.069252 -63.765388 214.69652
205.8611 -51.80302 93.698303
197.32732 72.793976 99.737328
12.234026 45.333908 226.39346
41.012779 -30.308437 206.57399
68.862175 -44.518848 187.48805
46.727085 -7.82798 202.69807
80.680115 116.68739 179.65399
111.29807 25.001375 158.22534
132.01468 76.567932 144.45097
55.267147 -17.881392 196.83632
66.231079 -21.115313 189.32619
86.023933 3.5692356 175.81676
34.099098 93.202209 211.5023
168.76834 126.38914 119.37141
192.56749 112.7376 103.05882
11.455373 28.391932 226.8996
61.929653 -48.857956 192.22661
111.92112 24.999931 159.13556
59.191811 -67.784241 194.07071
108.79324 117.08927 160.41069
172.15297 6.3447556 116.86429
22.199526 -39.765301 219.43701
68.45401 105.13318 188.00465
200.80614 -74.258362 97.122925
91.028656 126.22588 172.58534
127.10414 27.424894 147.73442
184.85004 -33.272343 108.11012
110.99913 25.002068 157.78864
55.216911 54.370049 196.98523
35.468018 -47.539268 210.34216
26.733294 23.638382 216.43407
110.08681 56.592976 159.42932
167.86411 99.977745 119.94851
208.43568 90.043648 92.160789
88.774338 -71.740295 173.81468
105.51537 -30.879868 162.41991
155.98337 17.358925 127.95013
111.31052 25.001347 158.24353
81.025482 89.3843 179.3743
40.529263 13.811031 206.9749
141.67249 -26.019567 137.67743
15.505624 71.230392 224.19504
124.00209 81.227287 149.94312
34.620293 -50.157803 210.9183
68.259346 52.172237 188.05397
140.35381 53.158112 138.70558
154.49513 10.275697 128.95763
111.33648 25.001286 158.28145
46.199612 1.3588666 203.0737
151.55635 -34.873604 130.89771
61.571724 -62.434143 192.4501
13.80389 43.186333 225.31546
68.196548 49.283688 188.09238
14.086466 -68.179848 224.9455
104.07109 50.63377 163.53775
188.29118 33.880177 105.86104
206.98512 101.6104 93.172058
111.17062 25.001671 158.03915
109.23909 -41.002354 159.85492
175.66946 115.81454 114.6307
124.10256 108.00917 149.91679
27.537064 110.78469 216.022
145.53435 -64.996162 134.97212
112.71162 -61.31012 157.44571
156.32874 127.09245 127.88765
64.278168 40.900612 190.76129
90.319084 92.348206 173.01736
111.96883 24.999821 159.20526
188.09651 29.622705 105.98755
204.54869 38.037178 94.739075
92.177803 -33.605152 171.54539
45.829124 2.0998425 203.32849
29.452299 25.145452 214.57524
123.19204 30.326004 150.41693
9.8164349 25.999458 228.0177
89.427399 18.269445 173.51031
183.9144 107.88358 108.97433
111.39464 25.001152 158.36642
106.91569 89.202202 161.6517
168.27226 21.7985 119.5452
123.6002 -30.082376 150.04178
118.53896 -52.594234 153.47061
212.55501 51.443821 89.279854
20.384762 -68.424744 220.63382
186.60201 70.326149 107.07508
155.51869 -64.927086 128.13777
112.10252 84.423531 158.09366
111.54506 25.000803 158.58617
148.16545 -40.656982 133.20967
36.94997 -4.7636046 209.39554
109.75401 -66.75441 159.46162
202.02435 45.446938 96.478775
20.805485 65.283745 220.55775
59.650211 -42.233128 193.79744
60.397465 -46.647587 193.27893
102.04911 89.001259 164.98265
139.2235 111.41264 139.57164
110.90977 25.002274 157.65808
12.07076 109.17088 226.6064
164.76833 17.214497 121.93644
131.78233 114.57121 144.67026
159.76988 -23.501505 125.29343
75.819817 0.56765491 182.79689
92.397583 27.933531 171.49249
189.13263 28.479843 105.2765
125.60336 31.154892 148.76765
155.83894 -38.283348 127.96079
111.5232 25.000853 158.55423
186.72758 -62.898823 106.77795
117.34586 65.735863 154.47487
168.69299 61.377922 119.31993
80.93129 -6.019496 179.28755
88.209183 2.5080073 174.31923
194.40736 60.404606 101.71645
73.804108 7.5441322 184.18774
184.87515 -12.568971 108.12575
28.736441 -34.233097 214.97115
111.81852 25.00017 158.98567
186.5706 -55.991421 106.89635
174.21892 91.594673 115.58524
168.50461 -10.163938 119.33549
134.62065 110.10651 142.72029
39.687813 72.486282 207.64389
105.63467 -28.612984 162.34184
44.95628 26.219238 203.96419
9.8980675 88.078178 228.06021
153.75417 127.26199 129.65025
110.88615 25.002329 157.62358
78.997215 94.382751 180.77061
123.72579 110.74702 150.17903
77.320602 113.45346 181.9485
40.830677 -24.518778 206.70782
137.10732 115.72662 141.02704
206.533 100.99502 93.480568
27.945229 25.685486 215.60771
163.84525 102.08765 122.70284
103.75084 54.897522 163.76372
111.57839 25.000725 158.63487
93.515327 74.746887 170.80157
123.46206 -57.284988 150.09323
172.05251 -1.8938924 116.92
74.55764 125.73608 183.85927
62.670628 36.429638 191.85458
210.53929 -2.6223094 90.573952
9.6468897 102.02485 228.25426
196.57378 -10.421395 100.12124
126.26897 51.619644 148.34447
111.06629 25.001911 157.88673
72.290756 -3.532831 185.2061
14.180657 11.732531 225.00769
191.01018 -11.313079 103.92821
150.22511 113.08926 132.04349
136.82474 33.785984 141.09059
116.98794 40.467327 154.67982
58.664333 97.365494 194.69356
117.81683 15.041804 154.07213
194.53923 -49.799873 101.4515
111.47783 25.000959 158.48796
98.658203 97.465965 167.3172
108.56718 -58.490643 160.28712
177.31468 -26.038406 113.27967
182.2943 77.403099 110.035
92.554565 15.449969 171.36525
74.545082 -47.74649 183.5929
127.28625 23.920958 147.60422
176.09647 -70.559761 114.043
37.044163 -55.193928 209.25113
111.89095 25.000002 159.09148
132.59866 14.558287 143.95294
15.354917 -57.818741 224.09364
91.198204 58.307266 172.36163
186.94737 -19.457535 106.69636
104.64252 29.842485 163.11363
73.176163 -30.302158 184.55759
133.10103 51.971294 143.66837
15.857273 -57.165676 223.75081
90.356758 34.596035 172.90004
110.96448 25.002148 157.73801
202.96626 116.86949 95.947227
148.71803 -56.255157 132.8067
195.39952 107.174 101.11143
80.887337 -8.4998817 179.31371
212.7057 81.955704 89.225067
197.45291 -20.751104 99.503075
120.08371 -49.033779 152.41885
92.479218 -34.578468 171.33752
30.927971 51.31823 213.6066
111.41381 25.001106 158.39442
137.70387 96.103325 140.58759
89.182495 24.592859 173.68799
92.730392 -58.603672 171.12752
207.2677 32.071693 92.868408
191.12321 -13.416697 103.8475
28.39735 28.668228 215.30296
127.43067 -74.409065 147.3495
125.67242 50.608654 148.75121
184.87515 99.217934 108.30294
111.38367 25.001177 158.3504
91.33007 -2.0571582 172.17569
121.86707 32.071693 151.32666
44.340893 12.624213 204.36389
156.47316 -24.399467 127.54867
44.805573 -18.459101 203.99654
96.441551 107.99033 168.85121
78.896744 -15.520315 180.66518
101.93607 87.506744 165.05765
35.354988 -42.170334 210.42804
111.99169 24.999769 159.23865
197.40895 -13.460653 99.544724
41.835388 -54.96159 205.97182
106.97849 -52.851692 161.38356
66.852745 -67.175133 188.82764
193.39638 58.181679 102.40496
150.44489 22.238064 131.74905
101.05695 127.8711 165.7234
14.004833 9.8863697 225.12512
162.47633 94.338791 123.62759
111.95312 24.999859 159.1823
115.12294 40.932007 155.95718
41.025337 -14.65375 206.59021
46.570099 -61.09034 202.72112
169.32094 -61.994579 118.69454
174.63963 98.552307 115.30827
51.047352 24.674492 199.7923
129.46523 123.63874 146.27072
145.13246 -73.925552 135.23308
62.840176 22.282019 191.71611
111.13624 25.001749 157.98894
16.497778 -11.419829 223.38489
83.826118 75.588333 177.43535
212.29126 102.10648 89.540703
122.92831 14.024532 150.57162
143.34282 94.527176 136.72513
11.361181 -1.8499362 226.91614
211.06049 45.283672 90.293121
83.549828 84.153511 177.63805
52.083462 85.691978 199.17978
111.81908 25.000168 158.98647
22.946781 33.239674 219.04121
87.832413 -3.0618715 174.5683
120.59235 -40.688381 152.08391
143.33655 91.776779 136.72505
176.05879 -72.431038 114.06582
74.513687 70.633842 183.80202
200.98196 74.828522 97.238876
87.51844 37.296204 174.8472
83.436798 35.657265 177.63855
111.00258 25.00206 157.79367
114.75873 -62.321114 156.04283
112.35998 -19.470095 157.75275
25.722301 79.500435 217.21465
111.33015 4.756053 158.49608
121.50915 31.456306 151.57069
184.13417 118.0877 108.84007
79.1856 119.44407 180.68138
150.13092 14.539448 131.95177
170.97871 126.43938 117.85844
110.97058 25.002132 157.74693
83.091423 -19.532888 177.78749
116.19044 -45.705669 155.08913
134.66461 12.517463 142.53552
24.391056 -36.926987 217.94136
22.827471 -31.664801 219.02
118.06172 40.247547 153.94444
49.860535 50.822155 200.64613
60.278156 72.574196 193.54958
120.71793 100.27288 152.22137
111.39561 25.001148 158.36783
65.395912 -47.250416 189.85645
155.71335 104.59315 128.27324
212.38545 52.335503 89.397331
196.88776 72.517677 100.03777
198.60205 -69.416901 98.639336
61.609402 11.060629 192.5408
78.011345 -51.074604 181.21489
79.160484 -61.190811 180.41225
170.72125 -25.755831 117.79344
111.39095 25.00116 158.36104
155.80754 -53.10915 127.95879
110.69592 -24.179688 158.88435
172.91907 58.470531 116.4225
54.438259 94.024818 197.58109
84.598495 4.0339155 176.79323
149.14503 9.6917067 132.61894
167.8013 3.7325015 119.83894
182.14359 -56.587967 109.92578
87.223305 -18.666323 174.96051
111.90885 24.99996 159.11763
84.221725 -36.826515 176.98636
20.014275 124.73137 221.19359
121.45891 81.302643 151.6841
201.4592 58.275871 96.885963
38.58263 -14.151394 208.26308
154.02417 -49.931744 129.18457
137.74782 3.4624848 140.41066
34.004906 -65.027557 211.31598
157.90488 -27.878288 126.56312
111.07722 25.001886 157.90271
44.868366 77.183319 204.10515
184.94423 19.669765 108.12956
17.069208 124.52415 223.20921
14.865119 -6.006937 224.51105
64.146301 47.801735 190.86249
127.42439 -12.977135 147.45117
188.05884 -8.8326931 105.95238
154.58932 -16.298967 128.85103
190.55806 -57.793625 104.16401
110.93015 25.002226 157.68785
38.563793 115.5508 208.48155
212.48593 37.691807 89.305344
30.086523 114.57748 214.28285
192.14676 64.417183 103.27023
159.2738 14.024532 125.69248
179.78252 19.977459 111.66334
109.96751 -66.258331 159.31627
141.06337 -42.371277 138.06845
180.25975 -27.74642 111.26102
110.97813 25.002115 157.75795
98.337952 -71.922401 167.26793
213.13271 84.680992 88.937096
21.722286 35.362129 219.88277
170.97243 47.669865 117.73789
36.887177 -21.121592 209.4126
34.601456 127.22431 211.21236
206.99141 -18.01326 92.978149
55.951611 -9.1906223 196.38156
156.91901 41.258541 127.34755
111.8921 25 159.09314
55.078766 -34.465439 196.93898
86.080444 47.450085 175.84763
203.90819 53.459526 95.201958
106.7273 53.773499 161.7245
96.328522 87.814438 168.89661
62.187111 -37.598888 192.06822
164.88763 53.917927 121.91295
160.14665 -3.2565348 125.0676
183.54391 17.484514 109.08464
111.59001 25.000698 158.65184
203.02907 -49.291237 95.640862
191.87675 -75.219116 103.23372
189.23938 126.7408 105.35917
171.67574 47.129833 117.25561
24.717588 83.826981 217.90926
50.325214 -50.245716 200.16786
192.08397 -43.570652 103.14204
130.28783 2.9224515 145.5163
171.3806 46.219311 117.45619
111.55764 25.000774 158.60455
11.229313 21.754545 227.04382
148.04613 -21.102753 133.32234
99.16684 -60.51263 166.71863
49.885654 91.732819 200.69379
45.533989 25.779676 203.56804
143.82005 10.564551 136.26537
25.119473 70.633842 217.61324
13.854126 108.96993 225.38533
202.88464 -59.859566 95.722969
111.45501 25.001011 158.45461
107.57503 -29.228371 161.01265
72.780556 -54.214333 184.79048
204.8815 -40.663261 94.386513
71.380234 108.92597 186.00761
111.95181 -73.190857 157.94699
114.7085 19.927223 156.20758
209.75436 73.855202 91.232468
199.68211 51.864544 98.092247
36.673676 121.22743 209.78438
111.58774 25.000704 158.64851
26.362806 66.106354 216.75497
105.58444 -10.609779 162.40475
159.31148 55.424995 125.73232
185.62241 83.17392 107.766
117.71635 57.773514 154.20863
195.85793 21.880135 100.66245
123.70695 -57.85014 149.9247
54.815029 -69.718315 197.06363
59.041103 15.161115 194.30536
111.40946 25.001118 158.38808
39.091267 -16.292688 207.91151
141.09477 7.6571627 138.12625
129.30823 5.2772479 146.19058
27.995464 64.863022 215.63542
27.894993 -42.170334 215.53455
208.26613 -7.3507409 92.122482
178.23776 8.3227854 112.70227
113.56564 -50.735512 156.87788
116.14649 -25.573727 155.15112
111.07263 25.001896 157.89601
176.77466 -62.961617 113.59081
22.84631 -47.909756 218.98137
40.836956 41.61647 206.80835
194.75902 74.414078 101.49794
116.76816 56.109455 154.85506
61.458694 67.450157 192.73335
95.141701 -77.372971 169.44717
182.87828 76.065575 109.63313
137.44012 -59.501637 140.52148
111.5806 25.000721 158.63809
12.912208 -9.7055378 225.842
189.89244 97.428291 104.86568
89.270409 122.16935 173.78247
102.37564 -4.5061469 164.61092
14.85256 -59.985153 224.43408
124.47933 -66.283447 149.38263
159.65057 119.55082 125.60184
176.66162 -33.61771 113.71469
193.69151 -8.5752354 102.09712
111.26008 25.001463 158.16985
194.64598 33.158039 101.50992
214.19394 90.382736 88.219704
88.158951 -25.06509 174.30991
104.4667 -30.52194 163.13831
155.4245 40.975964 128.37012
135.29256 2.3510208 142.08957
124.88122 36.511269 149.27046
112.66767 122.44565 157.76706
187.03528 -68.129608 106.55904
111.82369 25.000158 158.99323
128.59238 -33.806095 146.61865
125.12611 59.75782 149.13968
152.93784 51.651043 130.0892
35.022179 -36.543938 210.66478
116.19672 65.403053 155.26094
211.26772 26.859743 90.122063
177.07607 42.997948 113.55244
143.8075 6.7089643 136.26785
109.75401 -72.230095 159.45294
111.81676 25.000174 158.98309
153.99905 122.78474 129.47552
156.23454 112.8004 127.92947
60.36607 -49.850109 193.29535
61.056808 -72.079391 192.78728
107.22338 93.936913 161.44859
24.45385 48.266415 218.03342
39.700375 86.696693 207.65781
103.7634 118.65285 163.85619
135.38046 122.16307 142.2193
111.87827 25.000031 159.07295
178.58313 -3.3570061 112.44735
210.06833 4.0276361 90.906876
213.6853 -49.385429 88.346329
191.57533 53.823734 103.64459
67.336266 11.267851 188.62099
195.16719 71.921127 101.21458
21.67205 42.388844 219.9283
42.04261 -9.2031813 205.90251
136.30354 -14.578397 141.3707
111.72371 25.000389 158.84715
197.16405 -16.462234 99.707611
197.9113 68.417191 99.330643
213.41528 86.225739 88.746117
17.854141 123.7141 222.67062
158.6019 38.388828 126.19103
23.76939 -38.653835 218.36417
76.8936 59.65107 182.15552
43.581078 -25.379065 204.82376
82.965836 -65.291298 177.80092
111.9052 24.999969 159.11229
114.53895 5.2835274 156.30043
142.01785 54.671463 137.56891
127.48719 -37.994495 147.36853
20.315687 117.0202 220.97504
111.21712 64.76255 158.66856
114.8592 17.490793 156.10056
206.75278 -43.105972 93.101723
164.68669 107.83335 122.13596
137.79807 85.189629 140.50581
111.62994 25.000607 158.71016
190.01175 -20.568998 104.59698
172.59882 -17.008547 116.52208
130.52017 118.40796 145.54031
157.4716 30.62114 126.95242
61.640797 66.458 192.60712
169.96144 94.049942 118.50345
144.55475 -54.628777 135.65912
189.24565 -77.630432 105.03094
117.31447 -15.915921 154.36693
111.69068 25.000465 158.7989
177.39005 -67.809357 113.16188
105.54677 42.150223 162.51418
111.8639 -15.024239 158.09937
161.94885 84.279106 123.97272
76.862206 108.80038 182.25491
89.659737 -17.278563 173.29494
11.03465 45.365307 227.21451
35.932697 46.891212 210.17377
127.58138 -51.131119 147.28323
111.29104 25.00139 158.21507
93.07576 -14.804457 170.96053
42.469616 117.67326 205.81133
12.723824 26.79067 226.02879
114.5829 103.57587 156.42615
155.97081 51.751514 128.01324
106.7273 -46.214302 161.56601
13.45852 35.343292 225.53943
121.77916 -6.1074085 151.32632
100.69274 24.23493 165.80844
111.64597 25.000568 158.73358
86.093002 67.318291 175.87051
105.78539 91.111153 162.42844
131.65675 124.63718 144.77217
135.06021 -69.511093 142.1347
62.306419 -25.868862 192.00514
85.703682 -67.727722 175.92296
92.717834 -43.953697 171.15933
202.18134 -8.7008247 96.285484
196.8752 41.277378 99.996849
111.10993 25.00181 157.9505
162.83426 87.004387 123.37096
55.838581 97.541321 196.62811
170.49519 23.927237 118.02693
127.86396 122.59007 147.36516
115.06642 -40.550232 155.86671
88.039635 14.677596 174.45457
198.66484 109.59788 98.880104
10.607647 -43.740196 227.36555
201.54083 47.795456 96.813477
112.01369 24.999718 159.27078
210.57697 119.0673 90.741051
144.83733 125.5163 135.75122
45.339325 -53.090309 203.57628
49.885654 7.3557487 200.56004
90.168373 -52.343056 172.89119
171.19849 -51.689991 117.42566
206.58324 99.217934 93.443367
138.69601 1.4028227 139.75833
12.202629 58.25703 226.43542
110.92559 25.002237 157.6812
67.172997 -5.5422573 188.70612
95.807327 86.82856 169.25182
40.453907 -7.0304885 206.99344
91.662888 62.797081 172.05066
203.05418 113.31532 95.881409
205.35246 42.162781 94.195419
37.106956 123.26198 209.49101
9.5715361 49.045067 228.22186
54.249878 -74.892586 197.44229
111.42749 25.001076 158.41441
160.35387 -27.890846 124.88672
146.57674 83.952568 134.49469
19.24818 22.39505 221.55579
168.36018 76.593048 119.57187
197.31476 88.040497 99.770088
112.59232 -34.540791 157.56981
107.71946 50.822155 161.04068
105.77283 -47.306931 162.21764
176.9756 -43.671124 113.48383
111.79656 25.000221 158.95358
209.63506 -13.900215 91.175041
196.25352 88.856827 100.49782
210.75279 14.495492 90.454941
183.47484 24.561462 109.14314
162.20003 63.406185 123.7677
115.16061 12.297682 155.886
179.04782 29.67922 112.18163
89.125984 85.076591 173.82254
108.91255 16.115591 160.16898
111.29362 25.001385 158.21886
123.16692 72.046722 150.50024
210.11229 81.05146 90.998871
158.27538 14.683875 126.37697
60.334671 -27.551756 193.35217
144.02728 123.10499 136.3019
138.0304 22.683905 140.2477
16.648485 78.772018 223.42468
150.66467 18.344799 131.59244
88.541992 30.859758 174.13635
110.97327 25.002127 157.75085
58.406876 18.765522 194.74521
142.60184 69.183289 137.19217
131.50604 32.624287 144.72949
16.020538 95.042091 223.88031
61.370781 90.866257 192.83064
69.923401 -68.945938 186.72292
155.51241 -47.338326 128.16995
113.41492 112.19757 157.2393
53.678448 -51.897213 197.86989
111.67376 25.000505 158.77419
164.24086 115.78942 122.45374
165.38371 45.616482 121.56021
92.466652 96.454971 171.55382
205.96158 82.602486 93.842567
8.8870754 -11.036782 228.59515
168.00224 27.525366 119.73911
110.72104 -61.580135 158.80788
183.73857 -58.459248 108.83102
178.38219 -8.4182491 112.57687
110.96445 25.002148 157.73796
119.13551 77.754745 153.26888
191.97093 96.24147 103.44103
48.667439 -50.861103 201.30167
10.042496 112.91343 228.00072
52.767925 52.994846 198.65942
160.61133 -41.737049 124.68854
130.73994 78.841095 145.32715
146.56418 -43.357151 134.3015
32.592026 -55.168812 212.29874
111.31059 25.001347 158.24364
20.830603 120.26668 220.62772
153.44019 -5.2157254 129.6552
134.22505 -24.719721 142.77739
101.24534 82.853668 165.5231
138.65207 -4.3931165 139.77924
95.794769 80.919594 169.25104
165.92375 -50.534569 121.03814
32.761574 -76.895737 212.14824
212.81874 -65.372932 88.914169
111.65131 25.000557 158.74139
207.04791 86.910194 93.105782
85.100853 83.362305 176.57509
127.85768 0.46718362 147.17589
21.194813 -13.473212 220.16643
120.6049 84.80658 152.27423
14.865119 19.795355 224.55194
184.10278 20.479815 108.70683
38.733337 33.145481 208.23488
127.52486 -63.627239 147.30211
111.45225 25.001019 158.45058
181.66006 9.4656467 110.36146
179.99602 51.2052 111.56669
49.176075 -59.420002 200.93993
157.57835 -71.677505 126.7172
122.1936 120.17249 151.24278
93.527885 63.117332 170.77455
110.52637 -38.760586 158.97729
51.373886 110.36397 199.70461
176.25346 55.092186 114.1347
111.70023 25.000444 158.81287
79.593765 73.97451 180.32991
179.46854 -61.994579 111.74833
60.447701 -73.875313 193.20139
56.171391 1.0951294 196.24742
23.637522 31.336996 218.56537
45.954712 98.043671 203.39459
84.020782 26.646242 177.22452
161.21416 26.250637 124.38365
214.14371 -54.503189 88.024429
111.29421 25.001383 158.21971
12.64847 95.500496 226.18929
105.20139 83.902336 162.81677
68.610992 79.274376 187.85622
176.72441 13.434263 113.74629
32.987633 -40.098114 212.05183
206.05576 24.831478 93.686531
98.074211 126.30751 167.76266
141.35223 118.20073 138.12524
9.6531687 -57.71199 227.99677
111.96381 24.999834 159.19791
30.695631 123.23058 213.87962
89.138542 124.1097 173.87581
111.87018 -36.029022 158.06177
92.74295 -63.250473 171.11154
33.697212 73.214699 211.74571
105.79166 8.9444513 162.2939
197.26453 3.4122491 99.670334
129.99269 -65.423164 145.61
40.246685 96.08448 207.29874
110.99965 25.002066 157.78938
158.99123 54.187943 125.94957
15.574697 112.35456 224.21294
55.706711 -4.7070894 196.5563
101.28929 15.983724 165.38702
198.86578 23.343248 98.605835
25.829052 -17.975584 216.98708
138.56415 22.489241 139.88202
109.48399 57.214642 159.84296
106.79638 -70.999321 161.47945
111.01868 25.002022 157.81718
126.71481 113.92442 148.13803
134.19994 52.235031 142.91655
204.90034 56.467384 94.527573
129.36475 -52.242584 146.06073
152.32245 -16.795046 130.40196
90.846558 -11.796597 172.49123
131.3051 120.229 145.00589
184.86887 125.12698 108.3483
68.284462 7.5378528 187.96602
111.91392 24.999949 159.12503
205.06989 -58.057362 94.229988
162.41353 -39.997643 123.45766
81.264099 119.78316 179.25914
140.91267 -70.792099 138.12656
46.821278 -10.113703 202.62997
190.55806 9.9052086 104.27132
47.0285 -33.090237 202.45171
64.956352 109.06413 190.40511
79.744476 -25.046253 180.06979
111.31586 25.001333 158.25134
103.65665 -74.942825 163.62239
8.6672945 113.85535 228.94356
114.41964 127.36246 156.57561
64.761688 29.026157 190.41148
73.885742 33.245953 184.17259
181.30843 -59.087193 110.4935
55.574841 47.531719 196.72939
45.333046 38.633728 203.72597
198.35088 1.3463076 98.923431
111.28911 25.001396 158.21225
157.28322 -64.274025 126.93096
82.237419 82.081291 178.53313
80.692673 22.62739 179.49631
203.93959 -56.983574 95.005402
21.081781 -0.98965055 220.26358
19.273298 -57.435696 221.41205
93.132278 27.72003 170.98924
91.141693 73.177025 172.42389
111.39922 -48.167213 158.3649
111.80621 25.000198 158.96768
59.700447 64.034134 193.93149
92.667595 84.549118 171.3974
119.16691 48.153385 153.20045
206.13739 -55.916065 93.502663
188.67422 -54.383877 105.45894
164.04619 -19.8657 122.37198
65.490105 -17.077621 189.8398
123.31763 -9.5359926 150.26778
65.01915 -15.212622 190.16513
111.80866 25.000193 158.97127
117.55309 3.1861887 154.23387
16.36591 -73.774841 223.37631
205.87994 -55.840714 93.679008
91.97686 100.62453 171.89571
40.265526 34.137634 207.18765
73.672241 44.090576 184.33594
54.337788 76.341866 197.62183
17.358063 60.37949 222.90981
82.815132 77.578926 178.13054
111.88482 25.000015 159.08252
34.500984 -42.76688 211.01169
63.00972 5.7482076 191.57384
191.55649 61.622822 103.66985
52.340919 38.941422 198.92944
37.408371 17.804766 209.11754
8.6044998 16.115591 228.83162
137.53432 90.69043 140.69507
146.31929 72.706062 134.65309
115.05386 -14.892369 155.91599
111.09742 25.001839 157.93222
61.433575 88.480064 192.78387
146.89072 21.365219 134.18056
107.05383 90.589958 161.55934
108.24693 109.20227 160.77214
96.950188 87.676292 168.47086
93.308105 -22.088629 170.78993
114.51383 -31.708757 156.25899
123.04134 -9.7369347 150.45659
160.63644 63.060818 124.83746
111.18002 25.001648 158.0529
50.601513 30.564623 200.10681
29.351828 -48.129539 214.52788
17.018972 86.458076 223.18326
28.792955 -28.223658 214.94199
195.55023 14.828303 100.86189
48.234158 -2.9111645 201.67426
142.41974 107.81451 137.37805
168.20947 104.56803 119.71938
9.6217718 100.04054 228.26831
111.51968 25.000862 158.5491
85.490181 79.914879 176.30313
210.6586 58.018414 90.588402
138.43228 -22.691456 139.90068
113.88589 6.4263887 156.74927
18.883972 120.8695 221.96118
150.43233 58.018414 131.81436
41.483738 6.8408332 206.31049
202.43251 1.0825704 96.129059
171.12314 2.2442701 117.56273
111.3332 25.001293 158.27667
14.431836 76.511414 224.93843
111.17316 -19.627081 158.5649
14.406718 11.757648 224.853
207.71982 37.333878 92.567268
83.769608 -24.462263 177.31544
209.47179 -50.327347 91.229065
157.06972 -10.923753 127.16167
63.725578 -54.434113 190.98843
59.913948 -28.763691 193.63824
111.63377 25.000597 158.71576
128.96915 23.531631 146.45163
105.22023 120.8695 162.86247
32.504116 22.903685 212.48267
43.587357 4.7811708 204.86726
83.298645 43.161217 177.74501
183.82648 116.34201 109.04792
95.694298 -76.751305 169.0699
179.71971 -30.032143 111.62706
29.125767 58.596123 214.85178
111.05039 25.001947 157.86353
11.423976 72.046722 226.9903
76.391243 83.525566 182.53723
145.57202 71.720192 135.16304
131.7007 87.808159 144.68372
63.015999 29.013597 191.60641
160.4355 124.95115 125.0731
105.96749 127.02337 162.36072
202.15622 58.734272 96.409569
15.681448 -45.058884 223.89035
112.01052 24.999725 159.26614
117.25795 -47.602062 154.35539
33.546505 121.8491 211.92596
175.54388 26.953936 114.57581
28.202686 81.32148 215.51967
111.97065 -14.132555 158.02769
122.26268 2.9098926 151.00964
210.55185 116.58064 90.754303
47.480621 40.787582 202.25932
211.39958 76.348152 90.110245
111.03598 25.001982 157.84247
142.75255 -13.969289 136.9572
114.44476 -41.956833 156.29002
100.86857 -46.038479 165.57671
25.100634 83.870941 217.64713
189.00076 27.663515 105.36546
169.37117 -28.455997 118.71332
47.185486 30.012032 202.44427
14.161819 -10.107423 224.98598
99.788506 -40.399525 166.32497
111.11352 25.001802 157.95573
159.88919 -29.787243 125.20179
72.497978 -8.7008247 185.05606
23.76939 -43.350872 218.35672
53.125854 91.707703 198.47577
9.2010479 -42.597336 228.3302
197.77316 -14.145114 99.294334
122.54526 -52.500042 150.72838
84.724083 62.489388 176.79991
77.779007 99.042107 181.61188
111.38233 25.001179 158.34843
207.46236 82.514572 92.815117
25.163429 113.08298 217.65044
157.23926 -65.38549 126.95929
46.758484 123.78317 202.88519
178.7778 103.36865 112.48326
126.84041 26.633684 147.9137
96.001991 74.602463 169.09918
99.612679 -8.8201342 166.49538
75.166748 102.78467 183.40594
111.34037 25.001276 158.28714
211.25516 49.735809 90.166924
114.25009 -8.9834003 156.47554
44.146229 93.930634 204.62601
126.9346 109.11436 147.97997
120.41024 -8.3114977 152.25987
120.32233 46.985405 152.4077
120.65514 -6.4213815 152.09523
128.05862 125.38443 147.23634
183.87672 -20.298983 108.79694
111.33106 25.001299 158.27354
69.515236 -26.81078 187.06909
160.60504 14.909936 124.78262
129.9613 -2.9237235 145.73055
197.01962 84.944725 99.967209
134.70857 -39.218987 142.42343
150.62698 119.72036 131.77892
202.55182 75.487862 96.165329
51.442959 -6.9048996 199.47144
99.926651 99.958908 166.45288
111.7657 25.000292 158.90851
110.55777 37.64785 159.07692
95.399162 119.45663 169.58293
134.99742 21.063805 142.32126
211.6382 95.726555 89.977623
127.04135 64.209961 147.83571
61.772667 82.979256 192.54305
36.805542 122.69054 209.69643
52.340919 -3.7902887 198.86171
110.60801 -1.7620238 158.98006
111.60998 25.000652 158.681
152.63014 96.279144 130.37056
32.202702 -75.960091 212.53229
62.243626 -57.837578 191.99747
34.601456 125.20233 211.20915
84.736641 4.9507165 176.70012
15.229327 54.489357 224.35764
166.16866 58.351223 121.04309
68.353539 51.286835 187.98808
199.55025 56.103176 98.189232
111.5292 25.000839 158.563
68.94381 21.591278 187.53697
200.31006 114.92286 97.76236
40.033184 17.371483 207.32011
50.595234 93.497345 200.21086
68.033287 65.120476 188.22923
60.6926 15.135997 193.17484
34.63913 -54.452953 210.89859
38.971958 19.556734 208.05
105.91725 -23.187532 162.15701
111.05729 25.001932 157.8736
157.60974 -30.421469 126.76111
171.82016 101.81135 117.24342
171.06035 64.285309 117.70405
45.590504 -36.179729 203.43115
206.43253 89.691994 93.531433
118.58292 -70.609993 153.41197
123.01621 5.044908 150.49721
152.66782 45.063892 130.2636
35.69408 39.701233 210.3257
111.4899 25.000931 158.50558
138.85928 53.478363 139.72913
95.706856 -46.201744 169.10973
161.233 -71.727737 124.21545
78.507423 4.3353295 180.96315
53.446106 -1.5422428 198.10875
169.77934 -7.4763303 118.46717
121.45263 121.47233 151.75206
14.412998 -63.062088 224.7301
54.890381 37.742043 197.18239
111.20174 25.001598 158.08463
127.00367 -72.355682 147.64505
28.372232 59.311981 215.36873
209.01967 10.665023 91.635223
33.527668 83.77047 211.87851
77.3834 -15.652184 181.70088
77.659691 41.817413 181.60284
179.9081 31.738882 111.59602
73.45874 -58.534599 184.31941
122.5013 78.885048 150.96672
110.93724 25.002211 157.69823
152.17174 67.355965 130.6385
185.81079 54.903801 107.59223
147.6882 31.826794 133.65125
74.865334 76.228836 183.57018
206.81558 67.437599 93.233948
51.229458 -5.6113315 199.61964
208.5173 19.37463 91.992905
178.38847 101.66064 112.74706
193.93013 -6.1764827 101.93758
111.13235 25.001759 157.98325
119.87649 13.157968 152.65927
138.64578 36.850361 139.84891
63.273457 -19.714993 191.35295
115.93299 -17.642773 155.30984
202.8344 -14.170232 95.829788
32.661102 106.15045 212.50716
158.48259 113.98093 126.39252
26.607704 -44.380703 216.41222
68.428894 8.0904455 187.86803
111.68868 25.000471 158.79599
22.871428 47.607071 219.11557
142.38206 -56.770073 137.14296
183.55647 -12.851546 109.02796
54.4571 86.144104 197.55569
22.971899 -52.217464 218.88857
62.89669 59.079639 191.73575
72.830788 1.886341 184.84503
194.99763 -27.250341 101.17345
143.39934 -17.096458 136.50951
111.10555 25.001822 157.94411
89.038071 42.363724 173.81502
165.19533 47.751499 121.69255
105.94865 25.415468 162.21255
115.11666 88.053055 156.03616
112.73046 22.702744 157.56598
102.89056 88.103294 164.40524
103.87015 19.537897 163.62601
163.49361 73.308891 122.89792
126.63947 18.043385 148.03764
111.14317 25.001734 157.99905
168.85626 103.46912 119.27489
11.455373 -7.2628288 226.84309
118.6206 94.947899 153.64859
118.07428 2.4012566 153.87587
57.954758 -29.536064 194.97813
146.21254 15.525323 134.63553
72.008179 -35.394798 185.34903
82.645584 -45.065163 178.0522
22.632807 57.440701 219.29449
111.19123 25.001621 158.06926
37.320457 -54.415276 209.06323
179.12946 22.363651 112.11415
102.13074 -42.478027 164.71837
74.375542 127.48177 183.98669
15.951465 106.03114 223.94501
78.30648 55.37476 181.18159
47.116413 20.234917 202.47606
104.00202 64.479973 163.60698
147.41191 29.760853 133.8371
111.2326 25.001526 158.1297
55.625076 11.324366 196.6376
16.686161 -64.719864 223.17145
101.84817 10.030797 164.99503
211.65704 53.823734 89.8983
184.14673 63.682484 108.74523
67.386505 -54.861118 188.48178
111.26107 -63.652359 158.43494
148.6364 92.794044 133.09883
26.419321 74.985504 216.73036
111.59115 25.000696 158.6535
116.90002 104.98875 154.84227
208.69313 94.0625 91.990936
116.203 -22.53447 155.11726
48.06461 63.060818 201.89488
150.39465 111.25565 131.92453
198.35715 -63.495373 98.81636
203.73865 19.123451 95.26358
123.58137 10.7027 150.11932
132.93147 54.721695 143.78879
111.38461 25.001175 158.35176
21.810198 -22.270733 219.73123
127.73209 -67.168854 147.15465
90.256287 62.828476 173.01357
115.54994 12.08418 155.61917
83.298645 -39.244106 177.6144
111.00362 116.0406 158.89598
174.41986 -45.454491 115.23045
43.970406 72.994919 204.71318
70.25621 -45.391693 186.53242
111.46548 25.000988 158.46992
125.52172 -15.532874 148.74953
30.94681 -17.617655 213.48444
120.74933 -68.098213 151.933
58.48851 47.877087 194.73547
206.92233 -63.344666 92.953575
36.108524 57.817471 210.07072
181.9552 85.811295 110.28045
128.24072 -9.2220192 146.89833
31.86989 -64.060524 212.77896
111.30521 25.001358 158.23578
65.885712 -71.451447 189.4828
18.726986 22.947641 221.91342
52.146259 92.681015 199.14787
88.724098 64.888138 174.06563
143.53749 -48.204891 136.36563
